X,Y,Z,R,G,B
-0.09394897407720776,0.02209817108410644,0.28078388608967286,224,44,0
-0.09931674816589225,0.022700466925233073,0.28843678035877446,225,46,0
-0.1028283538235506,0.022853268886871614,0.29037831336744285,226,46,0
-0.11695127261296606,0.02528850961812388,0.32132098068060605,230,51,0
-0.10648398167754898,0.022414588153364227,0.2848043461536827,225,46,0
0.05617922347647419,0.02480315608731735,0.3547016573178565,232,54,0
0.04688889483688575,0.021938902395431118,0.31374092119563673,227,48,0
0.0498414355388583,0.02479886146471743,0.35464024135335653,231,54,0
0.044531217045801215,0.02365261652488031,0.33824817502030113,230,51,0
0.04327980138826898,0.024648200965781093,0.3524856958399983,231,53,0
0.04054095685791831,0.024881596793762777,0.35582341168167325,231,54,0
0.03587019999154218,0.02386477312588197,0.34128215576538423,230,51,0
0.03614144073785613,0.026246554277480176,0.375343213110917,234,57,0
0.030082428765609976,0.02404389613831001,0.3438437341850145,230,52,0
0.02935048999274712,0.026078039180857007,0.3729333349548915,233,56,0
0.025259917824251934,0.025259917824252003,0.361233654476595,232,54,0
0.022045737866623668,0.02520474371703514,0.36044462798327465,232,54,0
0.0181685470324083,0.024241984472583113,0.3466765293428021,230,52,0
0.016578503570136398,0.026551920875436195,0.37971015891423354,234,57,0
0.011314707066837315,0.022657043495150207,0.32401081738794746,228,49,0
0.0020196245183866073,0.016182885690473492,0.2314260473299794,217,35,0
2.0585032015453498e-17,0.023507931651770342,0.33617908493756077,229,50,0
-0.002872741771842979,0.023018759818345915,0.32918360180557416,228,49,0
-0.006093462638324997,0.024411047323355473,0.3490942407481059,230,52,0
-0.008852368893753544,0.023639341210602537,0.3380583291813617,229,51,0
-0.012463585015162293,0.024957604834657768,0.35691037730733904,231,54,0
-0.014968517659125739,0.023973387877034263,0.34283541907216897,230,51,0
-0.017959713158472605,0.02396334097289825,0.3426917416492067,230,51,0
-0.021314939926293564,0.024369227350724592,0.34849618727664683,230,52,0
-0.023659427163211136,0.023659427163211243,0.33834557168606694,229,51,0
-0.02903741809949111,0.02579987342959453,0.3689553793820393,233,55,0
-0.029821598458393668,0.023835423050405594,0.3408624301313873,230,51,0
-0.034516032027423406,0.025066153688281335,0.3584626982355584,232,54,0
-0.030969329643860573,0.02060417912321786,0.29465348913464856,224,44,0
-0.05409225162936728,0.033198565081371506,0.47476159943042207,245,72,0
-0.07251177193653166,0.018283693775054122,0.2614690026169691,222,41,0
-0.09348841180438272,0.02279843692634471,0.3260328376583514,229,51,0
-0.08924690174361734,0.021068423353115026,0.30129249092801214,226,47,0
-0.09916423066115812,0.022680872184244107,0.32435158351801424,229,51,0
-0.09599145449283245,0.021288938058942806,0.3044459981407522,227,48,0
-0.10604290011067971,0.02282176802439414,0.32636648790495887,230,51,0
-0.12091511635613039,0.02526995480733396,0.36137719002187435,234,57,0
-0.10068027690672819,0.020446372924946814,0.2923967553599338,226,46,0
-0.11221888448309028,0.02215955174471781,0.31689635389954635,229,50,0
-0.1064503438272767,0.02045148881237306,0.2924699159586235,226,47,0
-0.1414884889404327,0.026462274335344208,0.3784281536633091,237,61,0
-0.0840113210594537,0.015303970449610698,0.21885697380246308,217,35,0
0.048391059104728525,0.019803975483496588,0.3237921370073904,228,49,0
0.052926049242630537,0.0230331337703216,0.3765884083064289,234,57,0
0.04442641248507423,0.02063945493832753,0.3374521053471268,229,51,0
0.04658889845267133,0.023207307810821143,0.3794361286962848,234,57,0
0.040790136170732315,0.02189685596702956,0.35801043044190406,232,54,0
0.03495172136535728,0.020339226597969724,0.3325434153724474,229,50,0
0.03415311217107766,0.021693991848284782,0.3546936314191406,231,53,0
0.0282727834085911,0.019765275208532336,0.32315939310483954,228,49,0
0.027252838287138738,0.021179400846964055,0.3462801429182453,230,52,0
0.02367296371213239,0.020705941642685195,0.33853915335445683,229,51,0
0.020839657722280233,0.02083965772228022,0.3407253919306661,230,51,0
0.018022227001494376,0.021032881748433412,0.3438845768327809,230,52,0
0.014890005717993267,0.020858728719544223,0.34103719997971765,230,51,0
0.011112174271869993,0.01946262078208149,0.3182110369731664,227,48,0
0.010503505455076593,0.024533103129481985,0.4011126905472791,236,60,0
0.005644032754726477,0.019776714261095313,0.3233464199610277,227,48,0
0.004189634459034124,0.02936322941189012,0.4800845571959627,245,72,0
2.8603284512515317e-17,0.028570716502313014,0.46712708566143374,244,70,0
-0.0027263109889348494,0.019107465292976317,0.3124042960547533,226,47,0
-0.006166628380164069,0.021607891507493024,0.35328590329075243,231,53,0
-0.008935818073721912,0.020871445945977212,0.34124512479395386,230,51,0
-0.012749391170860198,0.022330154251541775,0.3650947947717207,232,55,0
-0.014367549377011006,0.0201268435013146,0.3290709824365696,228,49,0
-0.020059522227750298,0.023410511859125883,0.38275848551822567,234,58,0
-0.022058351156331663,0.02205835115633169,0.36065085344707926,232,54,0
-0.023533710984413925,0.020584141985963523,0.3365477465700189,229,50,0
-0.028192591331522784,0.021909725014100743,0.358220837501633,232,54,0
-0.029664674284090926,0.020738334911106236,0.33906877861153933,229,51,0
-0.034344446132820346,0.02181552681662251,0.3566807105867549,231,54,0
-0.03192604996358011,0.018578517429787264,0.30375607493722057,225,46,0
-0.037513366229039107,0.02013782875638176,0.3292505897692858,228,50,0
-0.028829161705699987,0.014360657835938933,0.23479468015931987,218,35,0
-0.11857811496853873,0.02529264136121646,0.41353103086471005,240,65,0
-0.08844750683644727,0.01826277788116138,0.2985937789490984,226,47,0
-0.09338443921845968,0.018681922784569923,0.3054467375433718,227,48,0
-0.09874767952634723,0.01915537587405655,0.3131876271311911,228,49,0
-0.0934575064629789,0.017592365234483164,0.28763262906656006,225,45,0
-0.09913111242813469,0.018120751311045732,0.2962716650539414,226,47,0
-0.10366252844671382,0.018413486477749843,0.30105784272232555,227,48,0
-0.11461537930067897,0.019796128899631223,0.32366384649521057,230,51,0
-0.10890092397385241,0.01830002901330111,0.29920282957590405,227,48,0
-0.10801223973487392,0.017669382975548306,0.28889185800207084,226,46,0
-0.0890671807489837,0.014191436672419755,0.23202793859228388,219,37,0
0.03350675346739734,0.01174976764530638,0.22419892248913897,216,34,0
0.05072856470766706,0.018916718604771687,0.36095249338094226,232,55,0
0.04314495981190871,0.017174999125991953,0.32771850593466717,228,49,0
0.04186560004270158,0.01786937307472235,0.3409679501627896,230,51,0
0.03843634471724091,0.017679841275389418,0.33735146799304677,229,51,0
0.03726552019904668,0.018581583820315613,0.3545577407499235,231,53,0
0.0356057565200601,0.01937934442015495,0.36977991979954206,233,56,0
0.031333067579261936,0.01876924876636148,0.3581386012369199,232,54,0
0.026482830749219307,0.017635022221158043,0.33649626949304323,229,50,0
0.024590288847189126,0.018429589374827866,0.3516575139597964,231,53,0
0.022008319742563672,0.018858040427650543,0.35983284706270696,232,54,0
0.018971916083079073,0.01897191608307898,0.3620057240093416,232,54,0
0.016988247319260765,0.02039159616362646,0.3890948336791133,235,58,0
0.011954122177229293,0.017940297585217382,0.3423212704420555,230,51,0
0.01035186518915441,0.020717936719072048,0.3953217824243197,236,59,0
0.006553111683825407,0.019675322443965613,0.375427516928437,233,56,0
3.185832846821475e-17,0.02726703320257356,0.5202859876071331,250,78,0
-0.0021176419885967474,0.012717153118373351,0.2426577369304526,218,36,0
-0.006065114005242621,0.018210138857712853,0.34747014864653214,230,52,0
-0.009097093651075123,0.018206671662214832,0.3474039906153113,230,52,0
-0.012407193863246685,0.018620250554919494,0.3552955459981683,231,53,0
-0.016160614757553145,0.01939815942744979,0.37013893152551547,233,55,0
-0.019337765704515897,0.019337765704515765,0.3689865506431306,233,55,0
-0.02353244160839214,0.020163998906019696,0.3847520192969665,234,58,0
-0.022152158224946535,0.01660229297789026,0.3167906216408364,227,48,0
-0.02891172942740209,0.019252435501796793,0.36735835338145834,233,55,0
-0.02941826900497367,0.01762223911952828,0.3362523533835526,229,50,0
-0.03694575810952468,0.020108674586504872,0.38369636839414856,234,58,0
-0.034655889933007035,0.017280352460349535,0.3297287673080522,228,50,0
-0.043071315697849326,0.01981182213506873,0.3780320861922083,234,57,0
-0.038579637248652286,0.016466835071764493,0.31420593081861714,227,47,0
-0.07651387132806779,0.03045838213582259,0.5811805528206938,255,88,0
-0.1208389663318242,0.022085453474867376,0.4214155565644092,240,66,0
-0.07799718067483051,0.013799705614456419,0.2633140690798551,222,41,0
-0.0922628421502032,0.015815523140708054,0.30177815883578096,227,47,0
-0.09609398165022545,0.015972380352804065,0.3047711727402409,227,48,0
-0.10029288663027092,0.016176696971951565,0.3086697660777689,228,49,0
-0.11470686810726227,0.0179665759669332,0.3428226918355073,232,54,0
-0.10078781213110129,0.01534023182783139,0.29270906032829147,226,46,0
-0.11500553904440468,0.017020245121551224,0.3247656236229603,230,52,0
-0.10622249056446763,0.015294890395696406,0.2918438942641065,226,46,0
-0.13324615243582338,0.01867724282469525,0.3563830232879034,234,57,0
-0.10163701651800612,0.013876190115521006,0.2647734802991612,223,42,0
0.08272918020868053,0.025700957459147345,0.5886487040145122,255,89,0
0.0379469704203226,0.012584649280754156,0.28823585663562523,224,43,0
0.04492698644308242,0.015975580119507702,0.3659009415573813,233,55,0
0.03811317318516405,0.014605241533393853,0.3345150278590611,229,50,0
0.03613242546495287,0.015009630785892465,0.34377706448859463,230,52,0
0.03408861218213568,0.015457011759647712,0.3540237734223136,231,53,0
0.029865966898893963,0.01490451703258379,0.34136956372689714,230,51,0
0.028296775639430567,0.015698057329827764,0.3595446246482054,232,54,0
0.023555247390806857,0.014707438862745741,0.33685573153021253,229,50,0
0.020187833936167084,0.014411087405426293,0.330068167231832,228,49,0
0.01777728896316162,0.014810266893714575,0.33921088064332955,229,51,0
0.014162808196494459,0.014162808196494518,0.3243816384399087,228,49,0
0.011505872437862753,0.01438562915232618,0.3294850773715544,228,49,0
0.00865632313928231,0.01443306967002322,0.33057164386638366,228,49,0
0.004812279589323777,0.012037117322296799,0.2756953130288446,222,41,0
0.004010385694301841,0.020064154177452394,0.45954468320794406,243,69,0
-0.003443700759237402,0.017229001956725425,0.3946090214502998,235,59,0
-0.007567135296255452,0.0189279308618725,0.4335208907772411,240,65,0
-0.00878708330754945,0.014651091870476746,0.33556517322992424,229,50,0
-0.011819668958895335,0.014777964492844168,0.3384710340271423,229,51,0
-0.014903632009849512,0.014903632009849614,0.3413492933736885,230,51,0
-0.018091005827217444,0.015071624544780126,0.3451969550076236,230,52,0
-0.020614766980134324,0.014715853604332588,0.33704846079866835,229,50,0
-0.02494904901156461,0.015577701517346077,0.35678802333673393,231,54,0
-0.026493933978192573,0.014697904092747327,0.3366373493936107,229,50,0
-0.03038840363765008,0.015165237447147938,0.3473410429757641,230,52,0
-0.03380134859633112,0.015326756042572031,0.35104042701706945,231,53,0
-0.03477484878563387,0.014445685120526562,0.330860585187,228,50,0
-0.03788698224637966,0.014518563542097749,0.33252977546820617,229,50,0
-0.04322243953196272,0.015369460548577872,0.3520185210104888,231,53,0
-0.043945460589858175,0.014573975283897428,0.3337989130110162,229,50,0
-0.030727981220367073,0.009546069913397584,0.21864094720539023,216,33,0
-0.07263872640727354,0.010706721133758633,0.24522423064004012,220,38,0
-0.09785129960077561,0.013973998242537755,0.32005717952127294,229,50,0
-0.08892419988737205,0.012313762537025952,0.28203153016709653,224,44,0
-0.08829474329929458,0.011864567740913167,0.271743277871354,223,43,0
-0.10746389925890973,0.014022835636947098,0.3211757397528208,229,51,0
-0.10050481028566004,0.012744068772147942,0.29188716329035863,226,46,0
-0.10538257110590653,0.012993112413521754,0.297591200463712,227,47,0
-0.10626702555568592,0.012747521909857045,0.29196625314685437,226,46,0
-0.10671158873679368,0.012461405452434819,0.28541310888650806,225,46,0
-0.10454384389822934,0.011890884227942548,0.27234602452033324,224,44,0
-0.145362502310292,0.016111944990800812,0.36902421059852064,236,59,0
0.0341770299478981,0.00906544278759939,0.2596003157874778,220,39,0
0.04262828636288059,0.01212377640120017,0.3471795317702046,230,52,0
0.03971012295348349,0.012170980353009822,0.34853127609018036,231,53,0
0.036249281211177084,0.012043784821965562,0.34488887264674195,230,52,0
0.034483451715883545,0.012505977483334992,0.35812433876322186,232,54,0
0.030398824788591922,0.012133576059804484,0.34746015727608387,230,52,0
0.028541713406250193,0.012664256405267816,0.36265685406103704,232,54,0
0.02516674677461293,0.01256802846500997,0.3599012463909201,232,54,0
0.021659029396987255,0.012366212747692219,0.35412200039333563,231,53,0
0.018881770927881944,0.012581452204022571,0.3602856519812887,232,54,0
0.015998563330011168,0.012795924802107873,0.3664273436223044,232,55,0
0.012416652326454341,0.012416652326454248,0.3555664009462487,231,53,0
0.009862697760877028,0.01315260164376395,0.37664123200011823,233,56,0
0.005563926194002848,0.011131243847496213,0.31875711817079894,227,48,0
0.004247233910492185,0.016995407736426354,0.4866848005867305,246,73,0
2.6742231986324636e-17,0.01525108005899286,0.43673379140734486,240,65,0
-0.004064088300388769,0.016262546211857663,0.46569839234787774,244,70,0
-0.006540665588561297,0.013085318002542572,0.37471448060830603,233,56,0
-0.007377402569144121,0.009838285579685503,0.28173163772953147,223,42,0
-0.012800312932046988,0.012800312932046937,0.36655300322267775,232,55,0
-0.015344671095814482,0.012272930600386842,0.35145074919632463,231,53,0
-0.019352507599214214,0.012895117217419256,0.3692678427509053,233,55,0
-0.021598018046573166,0.012331378345586043,0.35312447363166427,231,53,0
-0.026282170454374126,0.013125060197531188,0.37585254817001906,233,56,0
-0.029169003810783124,0.012942591710878098,0.37062733437007084,233,56,0
-0.030573030088239972,0.012203109446966688,0.34945133296247977,231,53,0
-0.034196089618251144,0.012401761004307203,0.3551399692735284,231,53,0
-0.03844304174557112,0.012772659407732928,0.36576110989625654,232,55,0
-0.044122358837203834,0.013523311503344248,0.38725697343353377,235,58,0
-0.04067956470057743,0.01156954662285959,0.3313084674607095,229,50,0
-0.055439838655941605,0.014705393834846337,0.42110738247968715,239,64,0
-0.04979361872729055,0.012372428877470507,0.35430000706010617,231,54,0
-0.0726636365388203,0.008566355500883254,0.2453083258347913,220,38,0
-0.09320975832976859,0.01064648294206438,0.3048753821011974,227,48,0
-0.09105835314977222,0.010085125198060334,0.2888001995615714,225,45,0
-0.09851637111325554,0.01058805460763275,0.3032022135175143,227,48,0
-0.10432963842097764,0.010888590013387081,0.31180842151717925,228,49,0
-0.09696020848593755,0.009833440478561923,0.2815928921865753,224,44,0
-0.09807943285559985,0.009671927801343506,0.2769677742533469,224,44,0
-0.1093797740465375,0.010494335846554292,0.30051845933791055,227,48,0
-0.10954813589253343,0.010231778437739586,0.2929997988777866,226,47,0
-0.10028189961250022,0.009122816364496354,0.26124328006724606,222,42,0
-0.1600634703027453,0.014189872817587284,0.4063447920567905,240,65,0
0.07154734097416096,0.006324941608325854,0.24153977516561195,219,38,0
0.0895514430782911,0.008177941760597773,0.31230299605802936,228,49,0
0.07533539764545906,0.007113423086352837,0.27165066799570353,223,42,0
0.08331117407813231,0.008141766916530891,0.310921534497805,227,48,0
0.07508826152412965,0.007602945220970241,0.2903447641085331,225,45,0
0.06674756262225763,0.007010229175341356,0.26770985152534077,222,41,0
0.046451401238803376,0.009239268315518915,0.35283342200148715,231,53,0
0.04946199822091644,0.010548622697705644,0.40283564853100645,237,61,0
0.035420464040258774,0.008140716560241859,0.3108814230094139,226,47,0
0.03740836654267347,0.009320010272105128,0.35591683292414195,231,54,0
0.03382195672684667,0.009197921495170552,0.3512544506355523,231,53,0
0.031103937964543287,0.009309609350599537,0.35551963775657414,231,53,0
0.02760813783386514,0.009185881236349032,0.35079465170162105,231,53,0
0.02280255037128911,0.008539010702824312,0.32609166266166745,228,49,0
0.020688363086801987,0.008857433704654277,0.3382517465062876,229,51,0
0.01710799319983988,0.008548131103165517,0.32643995669887005,228,49,0
0.015741202872744293,0.009440884148885083,0.3605328200476269,232,54,0
0.013013051493697586,0.009758053752804214,0.37264503855714615,233,56,0
0.009603647970580187,0.009603647970580336,0.3667485196274643,232,55,0
0.005792213409915731,0.00868942319537598,0.3318356840112408,228,50,0
0.0028438757132304335,0.008533360211785,0.3258758791146044,228,49,0
1.5976164219745558e-17,0.006832183508354995,0.26091056181862043,220,39,0
-0.004606031830017325,0.013820902428903312,0.5277989698543286,251,79,0
-0.01086912335655866,0.01630575497204589,0.6226916600572381,255,94,0
-0.008923280539421955,0.008923280539422058,0.3407663356756549,229,51,0
-0.014234115306779082,0.01067368882344268,0.40761173118315186,237,61,0
-0.015653993992562842,0.00938858008157824,0.35853540830221065,231,54,0
-0.018520579794322103,0.009253940093335144,0.35339371459143726,231,53,0
-0.022091998340478772,0.009458380534173593,0.36120098004506224,232,54,0
-0.02461559718980135,0.009217953449837868,0.35201944012100495,231,53,0
-0.02619635805826973,0.00871614867312664,0.3328562888305155,229,50,0
-0.02944854630816699,0.008814139945385555,0.3365984245426388,229,50,0
-0.03171407273820463,0.0086246799288993,0.3293632384146397,228,49,0
-0.0317657637680803,0.007914198666815529,0.30223105365625463,225,45,0
-0.035873121727674186,0.008244751276666674,0.31485434854308053,227,47,0
-0.039837619256747926,0.008496058182634842,0.3244513720927072,228,49,0
-0.042145512921723326,0.008382819286271374,0.32012695310809086,227,48,0
-0.03937249097744473,0.007335981481127196,0.2801498301957554,223,42,0
-0.04713504461099643,0.00825872406475449,0.31538794779223805,227,48,0
-0.04097178502029807,0.006773922658644661,0.2586856697308473,220,39,0
-0.08120055364527795,0.00717830674595712,0.27412847498954374,223,43,0
-0.09849550097344434,0.008436168235071867,0.32216426726789754,229,50,0
-0.09649348439900203,0.008013893181745396,0.30603823358179055,227,48,0
-0.09699808601821788,0.007817267781186302,0.29852941247577836,226,47,0
-0.09674475682738179,0.007571386886947244,0.28913959995421395,225,46,0
-0.10024062983761609,0.007623243590300041,0.29111992755948013,226,46,0
-0.11045220821880102,0.008167583080693519,0.3119074140321348,228,49,0
-0.10530610600192596,0.007576271829157705,0.28932614837098647,226,46,0
-0.12218049350385046,0.008557207598302941,0.32678657406398526,230,52,0
-0.10639880830243074,0.007258171110000957,0.2771783720051146,224,44,0
-0.1329943558344121,0.008841043807194443,0.3376258415742603,232,54,0
0.08377176589842315,0.004936444955337411,0.2828087420836354,224,44,0
0.12098636958664402,0.007364808786637425,0.4219296128043368,240,66,0
0.1092838488210855,0.006878427162818925,0.39406482823786854,237,61,0
0.09755991889204171,0.006355364250966999,0.3640985740873985,233,56,0
0.09538025245745795,0.006437568828357972,0.3688080711720001,234,57,0
0.08417599730367112,0.00589303039200612,0.33761148504692884,230,52,0
0.1251076576220019,0.009096024551178753,0.521110897529475,251,80,0
0.050811776141479394,0.0072234069588679155,0.41382870751690237,238,63,0
0.031578886291268475,0.004837921338125964,0.277164327833868,222,42,0
0.03563877718905336,0.005918668912101944,0.33908031487948803,229,51,0
0.032390930304782066,0.0058717559487704565,0.33639267301024195,229,50,0
0.030499863977061274,0.006085098166617447,0.3486150404849171,230,52,0
0.028240972569914577,0.006263498337366099,0.35883557942202826,232,54,0
0.024341301473860107,0.00607605274507267,0.3480968286316828,230,52,0
0.02136373454130668,0.0060969489634390825,0.34929397218012254,230,52,0
0.018471778783829506,0.006152256447846711,0.35246253583972936,231,53,0
0.01648561720227598,0.006590730741899942,0.37758271132211324,234,57,0
0.012247857650379938,0.006122062990893404,0.3507327538493744,231,53,0
0.00994572534410488,0.00662964185472281,0.3798119274827455,234,57,0
0.006787952108636474,0.006787952108636459,0.3888815158552142,235,58,0
0.0032370515761620906,0.006474596246058853,0.37092937051136965,233,55,0
2.050970968176123e-17,0.005846556156489993,0.3349489778773911,229,50,0
-0.004833764348231195,0.009668265014330471,0.5538945317070049,253,83,0
-0.00935306511627024,0.009353065116270287,0.5358367416411177,251,80,0
-0.007276083278055707,0.004850106409507742,0.2778624101057981,222,41,0
-0.011864021655638646,0.005930203466962272,0.33974112908486415,229,51,0
-0.013825239823072674,0.0055271472094769345,0.31665005155849174,227,47,0
-0.01810548288726635,0.0060302570282010255,0.3454731937692532,230,52,0
-0.020936459850480506,0.005975009984170301,0.3423080927365201,230,51,0
-0.025178251667803676,0.006284971464100956,0.36006577402876067,232,54,0
-0.029260785468272557,0.006489680221770986,0.3717935309011571,233,56,0
-0.03215557087867313,0.006415432067090966,0.36753985696838404,233,55,0
-0.0364158388041928,0.006601382427611756,0.378192945987846,234,57,0
-0.034593651758289365,0.005745100908814496,0.32913661063082267,228,49,0
-0.04108650797036001,0.006294499805518727,0.36061165234298953,232,54,0
-0.03911410105854885,0.005560464349632138,0.31855878923962994,227,48,0
-0.04907037348073326,0.00650596510400035,0.3727264911792388,233,56,0
-0.048564014573718575,0.006031613725322068,0.34555091889526224,230,52,0
-0.057636890625742225,0.006731675659922101,0.3856574402676532,235,58,0
-0.05333602800590277,0.005878000578520484,0.3367504276090193,229,51,0
-0.07241288238677258,0.004267096486817084,0.24446179400449838,220,38,0
-0.10669941891003029,0.006091784036825571,0.3489980737326087,232,55,0
-0.09500856017522435,0.0052597112487847986,0.30132865563175404,227,47,0
-0.10597668584935171,0.005693191129453036,0.32616270136294345,230,51,0
-0.10088751273934896,0.005263068496990166,0.30152099225262446,227,48,0
-0.10058523777474525,0.005098986512886456,0.2921207416790241,226,46,0
-0.11514582649713656,0.005675720037379759,0.325161783168418,230,52,0
-0.11079764884839803,0.005313566804279279,0.30441403833963604,227,48,0
-0.1246548393005361,0.005819597413313707,0.33340451251520814,231,53,0
-0.12110991850932708,0.0055071100652511334,0.3155021243346056,229,50,0
-0.1396156999954782,0.006186687735621067,0.35443510299521985,234,57,0
-0.08577184443495875,0.0037055839890849742,0.21229276455423404,217,34,0
0.05893609251157308,0.0016312383859165924,0.18692140468130253,213,29,0
0.09940259451539328,0.0028373773160594883,0.32513123655479137,229,51,0
0.09627753576148522,0.0028364721395224167,0.3250275135972796,229,51,0
0.10032817718235668,0.003053408289871061,0.34988593422998054,232,54,0
0.08978867535447939,0.0028254762000322784,0.32376750373420105,229,50,0
0.09446535437421742,0.003076652894346216,0.35254950207957836,232,55,0
0.08487558944902097,0.0028640668407334926,0.3281895531597785,229,51,0
0.08128266180893826,0.0028450195533539515,0.32600695021033177,229,50,0
0.08567118631463827,0.0031141493704396933,0.356846172659736,232,55,0
0.0627589544022642,0.002372302113533372,0.2718388968887066,222,42,0
0.03237488635421056,0.0024797458596615583,0.2841507307223721,223,43,0
0.040032877044177025,0.003323953828931129,0.38088738234938124,234,57,0
0.03172373609553411,0.0028751852460591238,0.32946359621763316,228,49,0
0.03111341541228029,0.0031035182374395533,0.3556279654799048,231,53,0
0.026047427937636074,0.0028882786545863584,0.3309639522263606,228,50,0
0.02629718924701935,0.0032818898423781395,0.3760673269112165,233,56,0
0.02142722146273065,0.0030573008214572436,0.3503319741700269,231,53,0
0.01873555891513449,0.003119818238344129,0.3574957605806667,231,54,0
0.014873644727198345,0.0029729163516454063,0.3406624716824107,229,51,0
0.012179460574975038,0.0030437056155271634,0.348774117874269,230,52,0
0.009370990662021418,0.003123029157473818,0.35786369546941216,231,54,0
0.006247723601318258,0.0031236238929002527,0.3579318453991114,231,54,0
0.0029756352975568263,0.002975635297556738,0.34097403202416476,229,51,0
2.1001892887198543e-17,0.0029932016759421577,0.3429869396110108,230,51,0
-0.0031937903780228237,0.0031937903780227734,0.3659721282136196,232,55,0
-0.00542749173187141,0.0027135391918770356,0.3109407930701778,226,46,0
-0.012747688414537564,0.004248366479580306,0.48681458014973106,246,73,0
-0.019891955666864605,0.004971095131376742,0.5696310807688634,255,86,0
-0.014830027000725582,0.002964198121875185,0.3396634615015239,229,51,0
-0.018473889097884045,0.003076245357920329,0.3525028030306574,231,53,0
-0.02081675931279526,0.002970198233951339,0.3403510062449549,229,51,0
-0.024065067082816076,0.0030033209432903402,0.34414649279673665,230,52,0
-0.025105954638685337,0.0027838830405651645,0.3190013997362512,227,48,0
-0.029980433898667804,0.0029905049682890936,0.3426779275212528,230,51,0
-0.03383226236170249,0.0030662851717790656,0.35136147874569335,231,53,0
-0.03836048531387202,0.003185094138949672,0.3649756379170311,232,55,0
-0.039166820554394556,0.002999972263786361,0.34376277213266,230,52,0
-0.040337216691007066,0.0028669529338298787,0.3285202666718409,228,49,0
-0.04294148209807753,0.0028464681177839076,0.3261729392529858,228,49,0
-0.04175034050244937,0.0025924828364337653,0.2970691087103591,225,45,0
-0.04803622947504817,0.0028049716630267857,0.3214179165172151,228,49,0
-0.05068283675242668,0.0027925875464327636,0.319998837313662,227,48,0
-0.05363842943991364,0.00279722830183857,0.3205306152111937,228,49,0
-0.06674106461341897,0.001966285996424094,0.22531405809840915,217,35,0
-0.11285118083218183,0.0032212577764675373,0.3691195803239691,234,58,0
-0.08960691616555494,0.002480148158179309,0.28419682956647013,224,44,0
-0.11309591343141383,0.0030375908128497755,0.34807343088966003,232,55,0
-0.10978323074795397,0.002863350694222102,0.32810749089774344,230,52,0
-0.1018989521974821,0.0025825947426881424,0.29593604539569607,226,47,0
-0.11983209945201716,0.0029531320018978137,0.33839540975114785,231,54,0
-0.1155984066433573,0.0027716882223426196,0.3176040119775574,229,50,0
-0.12291811029885504,0.0028690399915452377,0.3287594197981859,231,53,0
-0.1290075494370776,0.002932892183669267,0.336076156301476,232,54,0
-0.14879383222112616,0.003296444705734075,0.37773514905598976,237,61,0
-0.13110731534064277,0.0028318859871385898,0.3245019925863295,230,52,0
0.07397362667805121,5.746394742249838e-17,0.23461436988406378,219,37,0
0.11841054041270839,9.486198023036129e-17,0.3873034261650294,237,61,0
0.10338158547222778,8.548288980253905e-17,0.34901038349202224,232,54,0
0.1011589095848387,8.640692473601828e-17,0.35278304240936303,232,55,0
0.10422296667052022,9.204834210646256e-17,0.37581587675136297,235,58,0
0.0923983991015999,8.446034315643701e-17,0.34483551998519735,231,53,0
0.09289098150419779,8.797440703972054e-17,0.359182774580278,233,55,0
0.08878533568507803,8.721898536711274e-17,0.3560985315432907,232,55,0
0.09641293527248895,9.836088209574018e-17,0.40158877712424046,238,62,0
0.07850791796600895,8.328949083549179e-17,0.34005515261004715,230,52,0
0.12748293260954263,1.4084377450046465e-16,0.5750383481936407,255,88,0
0.020942594547062758,4.502065993275746e-17,0.18381079330016867,212,27,0
0.036898547533481665,8.598642674263686e-17,0.35106622906500046,231,53,0
0.030862332311512152,7.850416467296933e-17,0.3205175758742316,227,48,0
0.03050450996168035,8.53990653841934e-17,0.34866814433211096,230,52,0
0.026754551643195148,8.326344460476781e-17,0.33994881080299666,229,51,0
0.024205496389211534,8.478345530400433e-17,0.346154725440159,230,52,0
0.0216722315348742,8.678774360634988e-17,0.35433785343976276,231,53,0
0.017846561078843817,8.34064491950958e-17,0.3405326713513097,229,51,0
0.01587745700098231,8.906943185169687e-17,0.36365355265579624,232,54,0
0.012424220826090383,8.71417353513187e-17,0.35578313441879805,231,53,0
0.009790178667144553,9.157219031700902e-17,0.3738718395408584,233,56,0
0.0063875807560457975,8.963049245999535e-17,0.3659442564272392,232,55,0
0.003316083489382081,9.306961279458248e-17,0.3799855307643851,234,57,0
2.2411036424396563e-17,8.964414569758625e-17,0.366,232,55,0
-0.003254997740893418,9.13551725588928e-17,0.3729857973029359,233,56,0
-0.006335223536733901,8.889581629229046e-17,0.36294471334177003,232,54,0
-0.012486404342855537,1.167912694684848e-16,0.47683654401334086,245,72,0
-0.01849673325232551,1.2973348240505315e-16,0.5296771383201208,251,80,0
-0.012082570300198044,6.778085885417592e-17,0.27673635737817465,222,41,0
-0.01868393637873095,8.731994827756363e-17,0.35651074390738285,231,53,0
-0.01959658119068903,7.847567802151639e-17,0.3204012702934193,227,48,0
-0.02260109749309661,7.916380264696657e-17,0.32321075228418306,227,48,0
-0.026283797068828035,8.179839865864285e-17,0.3339673068005979,229,50,0
-0.029371485305960753,8.22271000984948e-17,0.3357176132569183,229,50,0
-0.03575046569004353,9.093805410875019e-17,0.3712827819909577,233,56,0
-0.03512156365793159,8.184543735276483e-17,0.3341593568437398,229,50,0
-0.03894190553615991,8.371409198307335e-17,0.3417887183527461,230,51,0
-0.04180118478796555,8.338456687829081e-17,0.3404433300129735,230,51,0
-0.04542311489257796,8.450621641047197e-17,0.345022811758086,230,52,0
-0.04648381572066191,8.101027186157065e-17,0.3307495349596845,229,50,0
-0.05084643742858607,8.333022366240238e-17,0.3402214569964994,230,51,0
-0.05490849722912102,8.491176941352275e-17,0.3466786075488934,231,53,0
-0.07064037530836996,1.0339208882523446e-16,0.42213023745793504,239,64,0
-0.059040380406756306,8.201083305012905e-17,0.33483463602415076,229,51,0
-0.06674360600542183,5.518812940548539e-17,0.22532263769402539,217,35,0
-0.1143173365465901,9.158280066684263e-17,0.37391515958154686,235,59,0
-0.09953361963591442,7.731937640994701e-17,0.3156803106976631,228,49,0
-0.1069198800537318,8.059781563944521e-17,0.3290655546381232,230,52,0
-0.10566245058289564,7.734667782500576e-17,0.3157917771836644,228,50,0
-0.11069317251543333,7.873898820566063e-17,0.3214763157037677,229,51,0
-0.12484376535343035,8.634933578375244e-17,0.3525479176684747,233,56,0
-0.12483735231386908,8.400778389663307e-17,0.34298780658685657,232,55,0
-0.1449858558414195,9.497926714862904e-17,0.38778228634883666,238,62,0
-0.12614551823994563,8.04887621863719e-17,0.32862031012701504,231,53,0
-0.14623398946299468,9.092674514067217e-17,0.3712366096248278,236,60,0
-0.13298534066264878,8.06185645198588e-17,0.32915026837120953,231,53,0
0.07577497608630825,-0.002097306496178572,0.2403275203045318,219,38,0
0.11606714712532687,-0.0033130552778696132,0.37963853209485937,236,59,0
0.09514151764040574,-0.002803003441711071,0.3211923806934769,229,50,0
0.1019819383447032,-0.0031037391957481984,0.355653284794211,233,55,0
0.0849785677462037,-0.0026741114036021,0.30642281603415455,227,48,0
0.09446535437421742,-0.0030766528943463566,0.35254950207957836,232,55,0
0.09013336932639394,-0.003041486910513582,0.34851987946171165,232,54,0
0.0817664871768486,-0.002861954193552618,0.32794746777110756,229,50,0
0.08076902034023119,-0.0029359555372539055,0.3364271818535931,230,52,0
0.07490584880270243,-0.0028314573613141543,0.32445287693168207,228,50,0
0.07510168628554185,-0.0029563295717793666,0.33876181496755364,230,52,0
0.05072852089934658,-0.0020827449015505192,0.23865892683237308,218,36,0
0.055502500549498686,-0.004608405961259818,0.5280710183486199,251,80,0
0.032011262404557074,-0.0029012443268392482,0.33244967110782314,229,50,0
0.03111341541228029,-0.0031035182374396955,0.3556279654799048,231,53,0
0.02808728675202926,-0.00311446915163242,0.356882815954931,231,54,0
0.02699472742333286,-0.003368942623343231,0.3860425875719915,235,58,0
0.022220822257646596,-0.003170534185215064,0.3633072324726205,232,54,0
0.018892560805484782,-0.003145961966598554,0.36049153511067233,232,54,0
0.014524702915416566,-0.0029031705134837703,0.332670390235316,228,50,0
0.011376802714733129,-0.002843117566366477,0.3257890040888587,228,49,0
0.008952175436903142,-0.00298345243535222,0.3418697872920083,230,51,0
0.006265175343221383,-0.0031323490993051457,0.3589316550231313,231,54,0
0.0029494566879009008,-0.002949456687900948,0.33797426048143014,229,50,0
2.1430502946120964e-17,-0.003054287424430913,0.34998667307246,230,52,0
-0.003289778613427882,-0.0032897786134279804,0.3769712905369798,233,56,0
-0.005741623086127633,-0.0028705929071626544,0.32893736630253534,228,49,0
-0.008795119727483824,-0.0029311111645565673,0.33587207172548184,229,50,0
-0.010294959511798346,-0.0025727597609757997,0.29480906811721874,224,44,0
-0.019671594639197758,-0.003931921626369911,0.45055359157996255,242,68,0
-0.02224193446629099,-0.003703694836023228,0.4244013917507915,239,64,0
-0.01996211230288578,-0.002848254611443203,0.3263776511498541,228,49,0
-0.0258786663412312,-0.0032296581737993246,0.37008217051475156,233,55,0
-0.028244198968521,-0.003131868420635953,0.35887657470328255,232,54,0
-0.029108909657427462,-0.002903571684327334,0.33271635986075127,229,50,0
-0.03172373609553406,-0.002875185246059255,0.32946359621763316,228,49,0
-0.033343310122956875,-0.0027685150690054273,0.3172404046199807,227,48,0
-0.03803483152103056,-0.0029132678630990273,0.33382743189761205,229,50,0
-0.03972789317603717,-0.002823645487699647,0.3235577248792149,228,49,0
-0.042549918431529714,-0.0028205124814516605,0.32319871792241145,228,49,0
-0.045925374552694305,-0.002851731120077272,0.32677601958139496,228,49,0
-0.04655819164504668,-0.0027186648426260856,0.3115281344705315,226,47,0
-0.044425696412620924,-0.002447823651811547,0.2804928080156791,223,42,0
-0.05462867736803514,-0.0028488694397187974,0.3264481034920158,228,49,0
-0.04219490045936824,-0.002088332235223606,0.23929917185579408,218,36,0
-0.07617154916608634,-0.003586610901309464,0.41098490172011326,238,63,0
-0.12162199799530475,-0.003471614598472945,0.39780763060821533,238,62,0
-0.10915204888622969,-0.003021120071876276,0.3461860709148613,232,54,0
-0.11587696048300597,-0.0031122856689036007,0.35663261361645493,233,56,0
-0.1148599119386108,-0.0029957599748799083,0.3432800916328992,232,54,0
-0.12208340918228688,-0.0030941630303773096,0.3545559649309458,233,56,0
-0.12517280583427975,-0.003084747912846047,0.35347709932222965,233,56,0
-0.12517460601026262,-0.0030012955307025004,0.34391440350232544,232,55,0
-0.14042781262062926,-0.0032777351470361623,0.37559124598026367,236,60,0
-0.13438286399695581,-0.0030550960246556267,0.3500793294807042,233,56,0
-0.14366301042039767,-0.003182774198639942,0.36470979908854184,235,59,0
-0.12661220738610646,-0.0027347927532939634,0.3133762099833697,229,50,0
0.07396236013640885,-0.0040945853392439545,0.23457863697915024,219,37,0
0.10231451128359068,-0.005841436747641091,0.3346556871408577,230,52,0
0.10137803534148157,-0.0059739350815440516,0.3422465116062977,231,53,0
0.09673397659433271,-0.005888491763348053,0.3373514671852443,231,53,0
0.09619116277650556,-0.00605436131690677,0.34685412754433415,232,54,0
0.09859503739487505,-0.006422795171401808,0.3679616889318271,234,57,0
0.09487956871752379,-0.006403775816135765,0.3668720707983938,234,57,0
0.0849016524528407,-0.005943832378144239,0.3405219288835403,231,53,0
0.08216025276668781,-0.005973508660475735,0.34222208195965526,231,53,0
0.07759629365700622,-0.005866760324879346,0.3361064739091909,230,52,0
0.0867790663037571,-0.006832524602461175,0.39143507231621055,236,60,0
0.06569008785582474,-0.005394445316836727,0.3090475652207981,227,47,0
0.10445288653072558,-0.008961471172840548,0.5134023396471786,250,79,0
0.021178685199280577,-0.003839225043426924,0.21994905542977355,216,33,0
0.031545573599131946,-0.006293730103758759,0.3605675561586857,232,54,0
0.02651513535730869,-0.005880728994527193,0.3369067384573488,229,50,0
0.02462028487184131,-0.006145692318082238,0.3520864770973754,231,53,0
0.022035166198319175,-0.006288567359433025,0.36027178273435495,232,54,0
0.01841945079860619,-0.006134827959326037,0.35146405840108985,231,53,0
0.014741107445421378,-0.0058932989173603985,0.3376268688541647,229,50,0
0.01207338674367937,-0.00603485411637939,0.345736560774597,230,52,0
0.009396093154035928,-0.00626326691011985,0.3588223209639622,231,54,0
0.006438957141611462,-0.0064389571416115935,0.3688876075850232,233,55,0
0.0029840205904243535,-0.005968495730868404,0.3419348914147936,230,51,0
2.2223954073072616e-17,-0.0063352235367340765,0.36294471334177003,232,54,0
-0.003603510245161522,-0.007207569405990207,0.41292137472020396,238,62,0
-0.006002713432830155,-0.006002713432830321,0.3438952222472845,230,51,0
-0.010233627919855328,-0.006821552539991257,0.3908064832782987,235,59,0
-0.012212963469039783,-0.0061046212159907125,0.349733515234419,230,52,0
-0.019364058301086017,-0.007741493252390583,0.4435098513942282,241,67,0
-0.023809233276607483,-0.007929962276969738,0.45430723458095434,242,68,0
-0.017762419290057802,-0.00506917756674518,0.2904129882983304,224,43,0
-0.02462028487184127,-0.006145692318082238,0.3520864770973754,231,53,0
-0.02682892394141881,-0.005950323420497929,0.3408938004509269,230,51,0
-0.030325579040049455,-0.006050326177094056,0.34662295453928904,230,52,0
-0.032295099150034146,-0.005854383889750559,0.3353974284155371,229,50,0
-0.03542975210290059,-0.005883955311444588,0.337091574029755,229,51,0
-0.03791730074399616,-0.005808973649721271,0.3327958775066157,229,50,0
-0.038261145583751835,-0.0054392081177088185,0.3116120243652455,226,47,0
-0.04489417148237299,-0.005952265946213222,0.3410050876746228,230,51,0
-0.050651293137058906,-0.006290852137585336,0.36040267758703565,232,54,0
-0.05172541466412764,-0.0060412473871097145,0.3461028310094324,230,52,0
-0.05208474289139478,-0.005740100271693153,0.3288501243220041,228,50,0
-0.058582976250362,-0.006110635299350443,0.35007806183934215,231,53,0
-0.05538533193647571,-0.005482737588642214,0.3141058260848269,227,48,0
-0.07889596447015994,-0.0074303511324866674,0.4256845312832202,240,65,0
-0.10786872761041419,-0.006158543313941607,0.35282271015707567,233,55,0
-0.1043290201924141,-0.005775695580153059,0.33088937817790715,230,52,0
-0.12018930261048925,-0.006456709473344843,0.36990463798887757,235,58,0
-0.1116742279378957,-0.005825786512391763,0.3337590857639114,231,53,0
-0.12141842618116498,-0.0061550872793096805,0.3526247140656181,233,56,0
-0.12882982326926004,-0.0063502258968945995,0.36380419797973723,234,58,0
-0.12721211534445698,-0.006100761886394865,0.34951241438995245,233,56,0
-0.1348093065469281,-0.006293665741926484,0.36056386887178415,234,58,0
-0.12935112598185527,-0.005881854241289067,0.33697120380116163,232,54,0
-0.14767749894534837,-0.0065439242977830625,0.37490117193457645,236,60,0
-0.13333963589015418,-0.005760645852027425,0.33002717983103624,231,53,0
-0.18825157272978765,-0.007932969181433639,0.45447950002231857,247,74,0
0.0916838403168088,-0.007614446792623987,0.2907839914094894,225,46,0
0.10697137494445287,-0.009162129299810818,0.34988760183991247,232,55,0
0.0902859302769174,-0.007981473934315808,0.30480019247089124,227,48,0
0.09974653044412733,-0.009108968976419505,0.3478574909938666,232,54,0
0.09029561845448639,-0.00852601774179863,0.3255954814983964,229,50,0
0.08589847762093143,-0.008394616820770823,0.32057748277413434,228,50,0
0.07608943834445138,-0.007704317823916368,0.2942160276299802,225,45,0
0.07980686835269936,-0.008381795753125379,0.32008786595421185,228,49,0
0.07701057142684624,-0.008399713456985603,0.3207721154587742,228,49,0
0.07375866190934878,-0.008365979420508023,0.31948386457982575,228,49,0
0.06966967344717023,-0.008229176935922757,0.31425958846550933,227,48,0
0.06526189962764428,-0.00803994462310997,0.30703309798997613,226,47,0
0.062181480193684066,-0.008003248761601774,0.3056317395764011,226,47,0
0.04673218442535064,-0.006295520989484567,0.24041624706050269,218,36,0
0.03324707927539886,-0.009041582886187316,0.34528412002984893,230,52,0
0.03990365150633285,-0.011943420399368371,0.4561008237885461,243,69,0
0.025568900380227383,-0.00850737864502764,0.32488368311002414,228,49,0
0.026568109148199237,-0.009949122562006123,0.37994166200029145,234,57,0
0.021298639284052782,-0.009118714934879897,0.3482296741318418,230,52,0
0.019357668146607814,-0.009672197272694744,0.36936631186110674,233,55,0
0.015959225073197816,-0.00957164431715201,0.3655263494111674,232,55,0
0.013152601643764049,-0.009862697760876997,0.37664123200011823,233,56,0
0.009446640101851356,-0.009446640101851327,0.3607526310232006,232,54,0
0.0064551775953880135,-0.009683995729786302,0.36981687675951536,233,55,0
0.002966005345086955,-0.00889982353376333,0.3398705487698328,229,51,0
2.2586990793433374e-17,-0.009659293925605156,0.3688735529159806,233,55,0
-0.0030096230707499566,-0.00903070329161279,0.34486864507527154,230,52,0
-0.005722427706181766,-0.008584731349648397,0.3278376637219488,228,49,0
-0.009315800211244032,-0.009315800211243966,0.3557560571863141,231,53,0
-0.011791987680616003,-0.008842418682165584,0.3376783459311405,229,50,0
-0.01552318067229073,-0.009310123980617804,0.35553929068408635,231,53,0
-0.017997399574143515,-0.008992529356235113,0.34341084129789384,230,51,0
-0.018735479255599402,-0.0080213337679316,0.3063223781045141,226,46,0
-0.024755062329686908,-0.009270179814992582,0.35401388454095395,231,53,0
-0.02666695131680152,-0.008872726194200606,0.33883574312088405,229,51,0
-0.028664413418304557,-0.008579443911336668,0.32763574459919576,228,49,0
-0.03363033090969736,-0.009145808625509358,0.3492643404336512,231,53,0
-0.038139815050491147,-0.009502245109827676,0.3628761006070162,232,55,0
-0.03530729961840488,-0.008114707881135504,0.3098881916259973,226,47,0
-0.04020310200222267,-0.00857400367054876,0.3274279901853008,228,49,0
-0.04358080902741669,-0.008668302296020393,0.33102910940588964,229,50,0
-0.044937507370016415,-0.008372869322982472,0.3197469793400317,227,48,0
-0.04728280337153247,-0.00828461348188523,0.31637662474456485,227,48,0
-0.05019825569280793,-0.008299347990171357,0.31693931291451133,227,48,0
-0.05428205484737234,-0.008494104631510825,0.32437676898512907,228,49,0
-0.054159665905302,-0.008043129632863475,0.30715472860530846,226,47,0
-0.061574500340000386,-0.00869965115640228,0.3322262740845915,229,50,0
-0.03471533700168902,-0.004676672735045679,0.178594926387802,211,27,0
-0.0982971009298245,-0.008163685577665718,0.3117585743964034,228,49,0
-0.12387335188950756,-0.009983198663234551,0.38124297580505456,236,60,0
-0.11482492449676134,-0.00898636738713066,0.34317552519155886,232,54,0
-0.12562624388740198,-0.009553805278752471,0.3648451040193485,234,58,0
-0.12613575440092684,-0.009327330527196653,0.3561963821877551,234,57,0
-0.1217174471970313,-0.008756989516818482,0.33441593772750383,231,53,0
-0.13338328946981953,-0.009341822621642864,0.3567498129466429,234,57,0
-0.11965387869700968,-0.008162387712930217,0.3117090109417787,229,50,0
-0.13958911728074658,-0.00927944267366672,0.35436761884240536,234,57,0
-0.12956946588195548,-0.00839771196617969,0.32069568160859924,230,52,0
-0.14230945422752464,-0.008996576996672953,0.34356541445000327,233,56,0
0.10898821271787985,-0.012448708894639686,0.3564843809521838,233,56,0
0.08799112237122766,-0.010373321114350935,0.2970530508155676,226,46,0
0.09779165297049419,-0.011909380032612233,0.34104002305637915,231,53,0
0.08706663962770915,-0.010963451010684017,0.31395215999678233,228,49,0
0.0910488055957219,-0.01186603446668151,0.33979876845169565,231,53,0
0.08632848036574943,-0.011656813557103988,0.3338074654929518,230,52,0
0.07833494555483086,-0.010971557729876933,0.31418430606088416,227,48,0
0.08305592326819083,-0.012080938615668712,0.34595281809364253,231,53,0
0.07890972110407607,-0.011935763726908867,0.34179555320879657,231,53,0
0.07700556425929284,-0.012129717184088411,0.3473496535336871,231,53,0
0.07376368800482112,-0.01211858493306097,0.3470308675736563,231,53,0
0.07830386854930857,-0.013440159446062352,0.38487581006020943,235,59,0
0.07017493556667367,-0.012607052431868769,0.3610187465899886,232,55,0
0.10035060640615509,-0.018907620873739758,0.5414434203177498,253,83,0
0.03536367582856253,-0.014115277593927444,0.40420866433836694,237,61,0
0.026189374389251553,-0.011620499009229394,0.33276755290216037,229,50,0
0.02607302851441894,-0.01302061674768361,0.372861679086438,233,56,0
0.019462620782081507,-0.01111217427187004,0.31821103697316644,227,48,0
0.018567946480327117,-0.01237234219509159,0.35429752480154425,231,53,0
0.015170299833362091,-0.012133465479928045,0.3474569906827301,230,52,0
0.011788844062757214,-0.011788844062757263,0.33758832449391035,229,50,0
0.008868579684183853,-0.011826875218132709,0.33867739429188354,229,51,0
0.006017412341476435,-0.012038492562339305,0.34473732215964153,230,52,0
0.002991378298354866,-0.011970071567955458,0.34277800123459673,230,51,0
2.1234678487996907e-17,-0.012110125355767925,0.34678861697562624,230,52,0
-0.0030960329326995984,-0.012388849581994713,0.3547702345139412,231,53,0
-0.006087179441087713,-0.01217806928769976,0.34873427661946343,230,52,0
-0.009836536758858825,-0.013117714106247486,0.3756421836393752,233,56,0
-0.012172504668349864,-0.012172504668349954,0.3485749267703394,230,52,0
-0.01700119808911264,-0.013597849244746945,0.3893914550754734,235,58,0
-0.018201817958179857,-0.012128380518005277,0.3473113764251758,230,52,0
-0.022757233704440088,-0.012993231985603523,0.3720774821034203,233,56,0
-0.02272675747513519,-0.01134952155011994,0.3250077737491412,228,49,0
-0.028384890805116907,-0.012594672578865389,0.36066423398377856,232,54,0
-0.030050414189295698,-0.011994509285480216,0.3434778059032921,230,52,0
-0.033334003325354064,-0.01208911156722397,0.34618686080444794,230,52,0
-0.035622492487064554,-0.011835534940317879,0.3389253762897378,229,51,0
-0.04016265996719836,-0.012309680983813496,0.3525031424843705,231,53,0
-0.04287187657066843,-0.012193055123492882,0.34916341480889146,231,53,0
-0.046569464470990946,-0.012352530821271065,0.3537302012829372,231,53,0
-0.047150940638412006,-0.011715791590677515,0.3354963754004916,229,51,0
-0.049633708195689116,-0.011597428369672527,0.3321068962244111,229,50,0
-0.04955951669689822,-0.010926934837466557,0.31290647361160434,227,47,0
-0.05195832494536664,-0.010842574396050509,0.31049070664415584,226,47,0
-0.05778961783100782,-0.011444975211306116,0.32774120896765013,228,50,0
-0.06392570389938376,-0.01204460059289048,0.34491223326956477,231,53,0
-0.06426346001622014,-0.011545045297662433,0.33060684130659285,229,50,0
-0.10560063697489444,-0.018125405868735484,0.5190437133127506,251,80,0
-0.09165939838508425,-0.010151693681215965,0.2907064715058722,225,46,0
-0.12167852733110558,-0.013077409139207997,0.37448800039467284,235,59,0
-0.1176483156662088,-0.012278622781053657,0.3516137519236276,233,55,0
-0.12689423258226729,-0.012869267740399983,0.36852761057974626,235,58,0
-0.13244059470637126,-0.013060392303174889,0.37400070196795493,236,59,0
-0.1210013750389821,-0.011609359030250819,0.33244854564256354,231,53,0
-0.13719766539895561,-0.01281424008815963,0.36695182479262733,235,59,0
-0.13430611555245564,-0.012218057631022043,0.3498793929472045,233,56,0
-0.14394723988324692,-0.012761144204374983,0.3654313576162899,235,59,0
-0.1276630320814505,-0.011034163207397498,0.3159770923720609,229,51,0
-0.15259767447118341,-0.012864929348656023,0.36840337529492573,236,60,0
0.08710972268372251,-0.012839700734624466,0.2940774953378606,226,46,0
0.09087375334306459,-0.013836783270615716,0.31691443997463953,228,49,0
0.0843669516975724,-0.013282418524910935,0.30421739981070145,227,47,0
0.09541332878011838,-0.015547111236958306,0.3560873907266756,233,55,0
0.07779406800654716,-0.013133532162223896,0.3008073414663588,226,46,0
0.07782470793850027,-0.013628233056162703,0.31213785475773265,227,48,0
0.07859621017611218,-0.014293578734216465,0.3273767761765381,229,50,0
0.07281477205440556,-0.013770461794949635,0.3153954284451576,227,48,0
0.0793577353781943,-0.015628854174430735,0.3579596118017842,232,55,0
0.07436154217480627,-0.01527449927668361,0.3498435503028457,231,54,0
0.06951318493166231,-0.014917556632621632,0.34166821966901295,230,52,0
